ply
format ascii 1.0
element vertex 1342
property double x
property double y
property double z
property uchar red
property uchar green
property uchar blue
end_header
-50.1772 -75.1552 8.95547 11 16 19
-51.0707 -72.3771 11.1613 14 19 22
-51.5629 -68.0364 11.1449 12 18 18
-52.0989 -66.0066 12.3098 12 18 16
-35.6187 -130.973 -19.5223 155 131 121
-35.7386 -130.121 -19.4379 175 137 127
-35.7475 -129.475 -19.6924 190 140 126
-35.5351 -129.249 -20.6201 192 141 124
-35.461 -128.762 -21.1264 187 136 117
-35.3594 -128.328 -21.7162 183 132 113
-35.3405 -127.735 -22.0546 182 131 112
-35.1561 -127.462 -22.8938 184 133 114
-35.1371 -126.869 -23.232 183 132 111
-34.9804 -126.545 -23.9858 182 131 112
-35.0165 -125.845 -24.1582 179 128 111
-34.8873 -125.469 -24.8279 174 125 110
-34.9506 -124.713 -24.9188 170 121 107
-34.9588 -124.064 -25.1758 158 112 97
-35.104 -123.14 -25.0224 147 103 92
-35.5507 -121.608 -23.9687 134 90 88
-46.2421 -92.7042 4.72581 13 23 25
-46.5131 -91.3822 5.19339 3 13 14
-46.7019 -90.2279 5.41678 6 14 16
-46.9719 -88.8962 5.8768 9 14 17
-47.1056 -87.8496 5.93419 12 18 18
-47.5918 -86.0426 7.02344 9 15 13
-48.2908 -82.9897 8.38963 2 8 4
-48.6581 -79.8453 8.4332 3 9 7
-49.3246 -76.7985 9.67913 8 14 14
-49.449 -74.9306 9.34457 8 13 16
-50.0635 -72.7556 10.7717 11 16 19
-50.9985 -66.5759 11.695 11 20 19
-51.6888 -64.1686 13.3159 3 12 11
-35.8386 -175.59 4.04073 54 47 37
-37.0185 -167.1 4.90979 75 54 56
-37.0589 -166.456 4.78115 170 135 142
-34.9928 -130.883 -19.2893 186 147 139
-35.0013 -130.239 -19.5428 189 144 134
-34.9275 -129.751 -20.0497 185 135 121
-34.799 -129.369 -20.7245 183 132 116
-34.7252 -128.882 -21.2305 177 126 107
-34.6514 -128.395 -21.7363 177 126 107
-34.6323 -127.802 -22.0745 179 128 109
-34.5038 -127.423 -22.7469 178 127 109
-34.43 -126.937 -23.2517 180 130 109
-34.2471 -126.667 -24.0886 179 129 110
-34.3096 -125.913 -24.1777 173 124 108
-34.263 -125.375 -24.5991 171 122 108
-34.298 -124.672 -24.7728 166 117 103
-34.2784 -124.078 -25.1123 153 106 92
-34.4761 -123.045 -24.7943 143 99 88
-34.8635 -121.622 -23.9047 135 92 88
-35.4403 -119.806 -22.4471 130 99 102
-45.3667 -94.3838 5.22464 10 17 23
-45.3653 -93.6382 4.8919 11 19 23
-45.5777 -91.6852 4.86631 7 16 17
-45.7103 -90.6472 4.93055 7 15 17
-45.8427 -89.6062 4.99243 9 14 17
-46.0554 -88.388 5.29119 14 20 20
-46.5901 -86.4664 6.54156 9 15 13
-47.1509 -84.477 7.86399 6 12 11
-47.5228 -82.8884 8.62398 3 9 5
-47.7775 -79.98 8.35194 3 9 6
-48.5699 -76.6354 9.99123 7 13 12
-48.7246 -75.4919 10.0981 5 11 11
-48.7987 -74.5254 9.96812 7 12 14
-49.3729 -71.6164 10.947 11 16 20
-49.1794 -71.2482 10.0335 11 16 20
-50.5326 -64.8632 12.5491 8 16 18
-50.7365 -63.5603 12.7817 10 16 14
-34.4717 -177.621 2.17523 65 60 43
-34.2842 -177.286 1.28763 67 61 46
-34.6109 -176.314 2.15441 65 57 44
-33.91 -176.623 -0.482475 65 55 44
-34.0084 -175.935 -0.3946 65 55 45
-36.3123 -168.928 5.6401 48 36 30
-36.0399 -168.701 4.46115 103 95 86
-35.8529 -168.364 3.57151 23 13 4
-35.7511 -167.914 2.96968 102 75 76
-35.9609 -167.045 3.41593 89 49 55
-36.3968 -165.863 4.61965 137 99 104
-34.2134 -132.338 -18.9756 117 117 111
-34.0668 -131.365 -19.9869 181 139 133
-34.1021 -130.671 -20.1544 182 132 122
-33.9745 -130.289 -20.8286 180 128 115
-33.874 -129.855 -21.4177 176 124 109
-33.8548 -129.265 -21.7544 173 122 105
-33.9168 -128.515 -21.8402 172 121 102
-33.8163 -128.082 -22.4289 174 123 104
-33.6076 -127.864 -23.3508 177 126 107
-33.5612 -127.326 -23.7712 176 127 109
-33.4878 -126.843 -24.2746 174 125 108
-33.6842 -125.82 -23.9484 168 121 105
-33.6644 -125.226 -24.2874 160 112 100
-33.7524 -124.414 -24.2963 153 105 93
-33.7055 -123.874 -24.7191 145 99 86
-33.9546 -122.73 -24.237 135 93 82
-34.3376 -121.306 -23.348 132 93 88
-35.3648 -118.549 -20.4979 113 91 90
-44.7249 -91.816 4.7798 6 15 17
-44.829 -90.836 4.76441 5 13 15
-44.8796 -89.9691 4.58711 8 13 16
-45.1696 -88.578 5.1264 15 21 21
-45.7251 -86.5989 6.45738 9 15 13
-46.6739 -82.9633 8.62063 4 10 6
-47.0939 -81.2503 9.534 0 4 0
-47.1364 -79.5809 8.97953 1 7 4
-47.5488 -77.0698 9.51911 6 12 10
-47.6485 -76.0476 9.4708 6 12 12
-47.8007 -74.9025 9.57668 7 13 13
-48.0583 -73.5124 9.99163 8 14 14
-48.2625 -72.2384 10.247 10 15 18
-48.5828 -69.0644 10.1432 10 15 18
-48.9433 -67.4069 10.8497 8 16 18
-49.0665 -66.2976 10.8584 8 16 18
-49.5047 -64.4427 11.786 8 14 14
-49.7319 -63.0765 12.0945 11 17 17
-33.1303 -179.053 0.0902759 65 60 44
-33.2844 -178.301 0.378753 62 56 37
-33.3091 -177.145 -0.0250851 64 56 39
-34.1084 -174.427 1.98072 86 68 56
-35.023 -172.675 4.86698 95 75 66
-34.6677 -172.556 3.39643 126 105 98
-34.4819 -172.22 2.50795 140 116 110
-34.6061 -171.479 2.67976 138 112 106
-34.702 -170.773 2.75353 101 75 70
-34.7696 -170.103 2.72974 75 52 46
-34.5562 -169.807 1.74723 79 66 57
-34.5395 -169.249 1.43574 107 94 85
-34.8878 -168.195 2.36427 103 79 74
-35.2075 -167.174 3.19291 125 86 88
-35.5548 -166.109 4.11234 123 82 84
-35.8177 -165.153 4.74238 101 72 69
-32.8537 -136.123 -19.9682 118 120 117
-33.2131 -134.83 -19.1018 117 119 116
-33.1135 -134.398 -19.6905 124 126 123
-32.9869 -134.017 -20.3637 105 109 106
-33.1073 -130.669 -21.3551 169 119 109
-33.088 -130.08 -21.6907 164 115 101
-33.0686 -129.49 -22.0268 164 115 100
-33.1296 -128.741 -22.1118 165 116 99
-33.0296 -128.309 -22.6999 168 119 102
-32.9029 -127.931 -23.371 167 118 101
-32.8566 -127.394 -23.7911 166 119 102
-32.8369 -126.803 -24.1282 165 118 102
-33.0108 -125.186 -24.1411 154 107 97
-33.124 -124.32 -24.0675 148 101 91
-33.1304 -123.669 -24.3257 138 93 84
-33.403 -122.47 -23.7617 129 91 82
-33.9147 -120.77 -22.4626 115 86 83
-43.8494 -92.7522 4.94752 6 16 18
-44.005 -91.6598 5.0947 6 15 17
-43.9755 -90.9672 4.67826 8 16 18
-44.025 -90.1006 4.50135 9 14 17
-44.3379 -88.652 5.12106 14 20 20
-45.5146 -84.5092 8.01512 7 13 12
-46.0094 -82.6274 9.17232 4 10 6
-46.4245 -80.9132 10.0851 0 5 0
-46.55 -79.8414 10.1232 0 4 0
-46.6226 -78.8852 10.0015 0 4 1
-46.6623 -77.2053 9.43898 5 11 9
-46.5771 -76.6032 8.84304 5 11 11
-46.675 -75.5804 8.79432 6 12 12
-47.2097 -72.7392 9.70218 11 15 17
-48.8068 -62.4069 11.6375 9 16 15
-21.6677 -4.26615 -119.791 126 125 105
-32.448 -179.676 0.251308 56 53 38
-32.8647 -178.034 1.22064 52 47 28
-32.8204 -177.525 0.822627 55 50 31
-32.1002 -176.753 -2.4101 60 46 30
-33.091 -174.911 0.781683 73 57 42
-33.6335 -173.635 2.41311 92 72 61
-33.5888 -173.118 2.00914 110 87 76
-33.3768 -172.823 1.02663 135 104 96
-33.3881 -172.233 0.816212 151 116 110
-33.4386 -171.015 0.489369 128 98 92
-33.4777 -170.386 0.372603 121 102 92
-33.6836 -169.528 0.828456 57 40 30
-34.1116 -168.361 2.04482 130 105 99
-34.5668 -167.15 3.35083 178 141 139
-34.7438 -166.315 3.69984 161 123 118
-34.7818 -165.671 3.5715 150 118 112
-34.9861 -164.792 4.0108 158 129 121
-35.2179 -163.87 4.54173 154 125 117
-35.4493 -162.944 5.06933 131 108 102
-33.0687 -136.333 -16.2465 110 111 113
-33.0229 -135.796 -16.6666 109 110 113
-32.5757 -136.015 -18.374 109 111 113
-32.2361 -136.037 -19.7339 109 111 112
-32.0837 -135.708 -20.4918 109 110 112
-32.0917 -135.075 -20.7364 113 117 119
-31.8595 -134.902 -21.7481 127 131 131
-31.5475 -134.886 -23.0126 124 126 125
-32.2508 -130.409 -22.1323 151 102 94
-32.2844 -129.715 -22.2993 152 104 92
-32.2913 -129.073 -22.5512 154 106 91
-32.2715 -128.483 -22.8875 156 109 93
-32.2252 -127.946 -23.3076 153 105 91
-32.2317 -127.301 -23.5612 153 106 91
-32.2911 -126.549 -23.6491 154 108 95
-32.4032 -125.686 -23.5724 151 105 92
-32.3828 -125.092 -23.9119 142 97 88
-32.5473 -124.116 -23.6732 138 93 87
-32.6586 -123.247 -23.6022 136 93 87
-33.1387 -121.607 -22.3806 121 89 86
-33.829 -119.518 -20.5085 100 83 81
-43.0375 -95.8079 6.2717 7 16 21
-42.9298 -95.2898 5.61611 5 14 18
-42.8221 -94.7724 4.96114 13 21 24
-43.0024 -93.6293 5.19404 5 13 16
-43.1823 -92.4824 5.4239 4 13 15
-43.1788 -91.7332 5.08847 6 14 16
-43.0185 -91.3287 4.2714 7 14 17
-43.1192 -90.3478 4.25553 8 13 15
-43.4023 -88.9581 4.7964 10 16 17
-43.8934 -87.0969 5.97014 10 16 15
-44.566 -84.8176 7.69327 9 15 14
-45.9723 -78.4863 10.6299 0 4 0
-45.9394 -77.7645 10.1907 1 7 3
-45.8544 -77.1617 9.59422 2 8 4
-45.6658 -76.7991 8.68477 2 8 4
-45.6327 -76.0777 8.24589 5 11 8
-45.7548 -74.9935 8.27459 7 13 11
-46.3338 -72.0259 9.33443 8 14 12
-46.5579 -70.6859 9.66388 8 14 14
-46.6524 -69.6474 9.60306 11 17 17
-47.0046 -67.9919 10.3117 11 17 17
-46.9438 -67.316 9.78334 11 17 18
-48.072 -62.1114 12.0988 9 14 17
-48.0869 -61.2371 11.7909 12 16 17
-48.1531 -60.2361 11.6343 7 11 12
-31.8965 -177.891 -0.093356 45 42 25
-31.4597 -176.766 -2.3504 52 42 24
-32.4793 -174.303 0.732219 81 65 50
-32.601 -173.571 0.910974 100 77 65
-32.5013 -173.131 0.316136 120 88 79
-32.4018 -172.691 -0.278026 140 107 98
-32.2748 -172.29 -0.967637 157 122 116
-32.3411 -171.628 -0.984546 146 112 106
-32.545 -170.776 -0.523814 127 103 96
-32.914 -169.693 0.507704 25 2 1
-33.2825 -168.604 1.53426 132 104 96
-33.7605 -167.355 2.93704 172 137 131
-33.9629 -166.484 3.38223 185 150 142
-33.8079 -166.111 2.58989 190 160 150
-33.7355 -165.623 2.08327 176 145 135
-33.91 -164.784 2.42868 160 128 118
-34.1391 -163.863 2.96036 160 133 124
-34.3954 -162.898 3.58303 148 125 115
-34.8429 -161.65 4.861 116 98 89
-32.0222 -138.895 -16.5698 86 92 92
-31.9769 -138.362 -16.9865 86 92 92
-32.0111 -137.68 -17.1443 95 101 101
-31.9921 -137.097 -17.4755 109 110 114
-31.9466 -136.563 -17.893 105 106 110
-31.6891 -136.432 -18.9974 107 108 112
-31.3261 -136.506 -20.442 120 121 125
-30.9898 -136.535 -21.797 125 126 130
-30.7861 -136.313 -22.7218 111 115 118
-30.6882 -135.889 -23.3038 106 110 113
-30.4584 -135.723 -24.3103 104 104 106
-30.4662 -135.095 -24.5509 86 89 87
-31.5285 -129.888 -22.488 128 81 71
-31.5349 -129.246 -22.7394 136 90 77
-31.5674 -128.55 -22.9078 143 97 82
-31.5735 -127.907 -23.1608 144 100 85
-31.6319 -127.155 -23.2478 144 98 84
-31.7163 -126.348 -23.253 144 98 85
-31.7482 -125.646 -23.4259 143 97 87
-31.7537 -124.998 -23.6827 137 93 84
-31.9421 -123.967 -23.3614 132 89 83
-32.2868 -122.606 -22.5481 122 84 82
-32.8135 -120.854 -21.1634 111 87 87
-41.9822 -96.3872 5.53374 11 21 23
-42.0829 -95.4189 5.52785 5 14 16
-42.1313 -94.5615 5.35822 3 12 11
-42.2573 -93.5315 5.42927 4 11 12
-42.142 -91.5174 4.10479 7 12 15
-42.1895 -90.6527 3.92951 11 16 19
-42.495 -89.2061 4.55134 13 18 21
-42.7484 -87.8699 5.00911 11 17 17
-43.3879 -85.6519 6.65555 10 16 15
-45.3438 -78.0281 11.3375 0 4 0
-45.2256 -76.7 10.2991 0 6 2
-45.1408 -76.0958 9.70153 1 7 3
-44.9277 -75.7929 8.71339 3 9 5
-45.0222 -74.768 8.66337 6 12 8
-45.1163 -73.7406 8.61135 6 12 10
-45.6104 -70.946 9.43139 6 12 10
-45.8982 -68.6223 9.61799 10 16 16
-46.1181 -67.2703 9.93831 12 18 18
-46.4903 -65.5425 10.716 10 15 19
-46.7746 -63.1863 10.8773 7 11 14
-47.4384 -59.8757 12.1705 12 16 18
-47.4774 -58.9342 11.9353 9 15 13
-50.4606 -39.116 15.7242 25 30 26
-50.1431 -39.0543 14.424 18 21 17
-50.0515 -38.3997 13.7871 11 14 7
-30.6092 -179.288 -2.08222 40 37 22
-30.4831 -178.893 -2.76728 41 35 21
-30.4396 -178.392 -3.1589 44 38 24
-30.3686 -177.927 -3.6478 49 42 26
-31.5373 -174.133 -0.477716 72 51 40
-31.6575 -173.402 -0.298267 85 63 52
-31.6134 -172.89 -0.698666 121 94 88
-31.7059 -172.192 -0.618317 136 106 100
-31.7164 -171.604 -0.827559 144 112 107
-31.8088 -170.903 -0.750006 142 114 110
-31.8738 -170.237 -0.769755 34 11 5
-32.1567 -169.265 -0.0269374 128 99 93
-32.4665 -168.25 0.80723 177 142 136
-32.7486 -167.268 1.54194 177 141 135
-32.7582 -166.667 1.32277 166 131 125
-32.7135 -166.144 0.91329 165 129 123
-32.8861 -165.307 1.26107 162 132 124
-33.0314 -164.507 1.51169 159 132 123
-33.095 -163.822 1.477 151 126 114
-33.2127 -163.056 1.6293 120 97 84
-33.5742 -161.928 2.62557 109 88 74
-33.9892 -160.713 3.80452 118 100 86
-34.079 -159.975 3.85382 109 92 80
-34.0063 -159.479 3.34044 84 73 63
-31.0364 -141.335 -16.7389 71 77 76
-31.1231 -140.562 -16.7175 72 76 77
-31.1306 -139.933 -16.9584 77 81 82
-31.0929 -138.773 -17.6155 86 90 93
-31.0739 -138.192 -17.9446 99 103 106
-30.8448 -138.01 -18.9638 107 111 114
-30.852 -137.38 -19.2063 106 110 113
-30.6494 -137.151 -20.1365 115 119 122
-30.316 -137.178 -21.4933 117 121 124
-30.0091 -137.159 -22.761 102 106 109
-29.8857 -136.786 -23.4278 90 94 97
-29.8931 -136.16 -23.6676 91 92 94
-29.7959 -135.737 -24.2482 71 72 77
-29.7509 -135.213 -24.6585 90 91 96
-29.8624 -134.377 -24.5607 76 78 78
-30.0258 -133.435 -24.2958 82 84 80
-30.8001 -130.007 -22.5929 120 77 69
-30.884 -129.207 -22.5922 121 78 67
-30.9156 -128.512 -22.7608 127 84 68
-30.9212 -127.868 -23.0139 131 89 74
-31.0304 -127.009 -22.9342 137 90 81
-31.1393 -126.147 -22.8566 135 90 83
-31.248 -125.283 -22.781 132 88 81
-31.3046 -124.524 -22.8732 130 92 85
-31.6456 -123.166 -22.057 116 87 84
-32.1152 -121.528 -20.8331 106 86 88
-41.1598 -95.7176 5.19637 13 22 24
-41.4126 -94.4073 5.67463 4 13 12
-41.434 -93.6044 5.4225 2 10 9
-41.3484 -92.2815 4.51327 6 12 12
-41.1903 -91.8788 3.69743 5 11 11
-41.7123 -88.4099 4.36627 12 18 18
-42.2936 -86.3107 5.85577 7 13 12
-43.3074 -83.2038 8.68621 8 14 12
-44.6936 -78.413 12.329 0 4 0
-44.6345 -77.7478 11.809 0 4 0
-44.4737 -77.3207 10.9741 0 5 1
-44.3637 -76.7758 10.2976 0 4 0
-44.3807 -75.9321 10.0136 0 4 0
-44.3633 -74.3615 9.28647 4 10 6
-44.3544 -73.5748 8.92191 4 10 7
-44.4213 -72.605 8.78978 4 10 8
-44.9838 -69.6181 9.83575 6 12 10
-45.2263 -68.2082 10.2362 7 13 13
-45.3421 -67.1013 10.2474 8 14 14
-45.7994 -64.32 10.9532 10 14 17
-46.2161 -62.4548 11.8743 10 14 17
-46.3553 -61.269 11.9491 10 14 17
-46.6828 -58.7614 12.2428 8 16 14
-46.6954 -57.8807 11.9299 7 13 11
-49.4169 -40.3807 15.7811 21 26 22
-49.1767 -40.1206 14.7013 21 27 23
-48.9614 -39.7975 13.6974 18 24 20
-48.9199 -39.0125 13.2091 11 16 10
-29.978 -180.408 -1.53309 41 35 21
-29.1777 -179.222 -5.34206 40 34 20
-29.8145 -177.833 -3.29656 43 37 21
-30.6987 -174.403 -1.0938 41 27 14
-30.7361 -173.783 -1.20252 48 32 20
-31.0171 -172.83 -0.445182 69 48 39
-31.2437 -171.945 0.115854 109 83 76
-31.1453 -171.506 -0.478498 132 100 95
-31.0742 -171.03 -0.976341 146 118 114
-31.003 -170.554 -1.47385 52 24 20
-31.1749 -169.736 -1.11143 147 115 110
-31.2926 -168.991 -0.942346 173 135 131
-31.518 -168.09 -0.39453 158 118 113
-31.7969 -167.107 0.340001 153 115 110
-31.9138 -166.352 0.501456 160 121 116
-32.1382 -165.439 1.03965 163 129 120
-32.1741 -164.796 0.912895 163 133 122
-32.2099 -164.153 0.785129 152 122 111
-32.1919 -163.587 0.467977 116 90 75
-32.3618 -162.741 0.808634 94 70 54
-32.6386 -161.731 1.52205 88 66 51
-32.6203 -161.161 1.20086 93 74 60
-32.8697 -160.184 1.81459 72 56 46
-33.0652 -159.283 2.23792 45 35 25
-30.1174 -143.034 -16.9868 62 68 66
-30.0466 -142.556 -17.4857 67 73 71
-30.1063 -141.836 -17.5482 75 81 80
-30.1397 -141.162 -17.6992 79 83 84
-30.199 -140.439 -17.7643 85 89 90
-30.2842 -139.664 -17.744 88 92 95
-30.2911 -139.035 -17.9852 98 102 105
-30.0899 -138.803 -18.9182 114 118 121
-29.7849 -138.773 -20.1943 122 126 129
-29.6101 -138.497 -21.0367 112 116 119
-29.4873 -138.122 -21.7058 104 108 111
-29.2609 -137.951 -22.7168 99 103 106
-29.0866 -137.68 -23.5544 79 83 86
-28.99 -137.259 -24.1342 80 84 87
-28.997 -136.634 -24.3725 78 79 82
-29.0039 -136.009 -24.6115 71 72 76
-29.0107 -135.382 -24.8512 84 85 89
-29.1206 -134.547 -24.7527 73 74 76
-29.2303 -133.709 -24.6562 76 78 74
-29.4944 -132.555 -24.0554 90 73 68
-30.0469 -130.18 -22.7818 114 73 67
-30.2067 -129.222 -22.5289 118 75 67
-30.2118 -128.579 -22.7811 126 82 69
-30.2682 -127.829 -22.8669 130 88 76
-30.3501 -127.023 -22.8707 131 87 77
-30.5087 -126.054 -22.6265 130 89 83
-30.667 -125.081 -22.385 125 91 86
-30.9786 -123.78 -21.6488 113 87 85
-31.7248 -121.549 -19.5108 96 83 85
-40.612 -98.1954 7.32037 23 35 44
-40.4042 -97.9011 6.3387 26 37 43
-40.1672 -96.9261 4.94988 12 22 24
-40.3155 -95.8466 5.10785 15 23 25
-40.4381 -94.8205 5.18222 8 17 16
-40.4589 -94.019 4.93129 5 12 11
-40.5555 -93.0448 4.92103 5 11 9
-40.4999 -92.4122 4.42634 5 11 9
-40.4948 -91.6644 4.09208 1 7 5
-40.8071 -88.6586 4.12164 13 19 19
-41.3061 -86.7357 5.3737 4 10 9
-44.1327 -77.7794 13.276 1 7 3
-43.9727 -77.3491 12.4385 1 6 2
-43.6367 -77.3369 11.0512 0 5 1
-43.5022 -76.8517 10.296 0 5 1
-43.6188 -75.7684 10.3258 0 3 0
-43.7256 -73.8946 9.988 2 8 4
-43.691 -73.1668 9.54421 3 9 5
-43.7063 -72.317 9.25554 4 10 6
-43.9466 -70.9169 9.6639 5 11 9
-44.2113 -69.4504 10.1456 6 12 10
-44.5782 -66.0693 10.2577 10 14 17
-44.9538 -63.4673 10.7284 6 10 13
-45.116 -62.2224 10.8824 12 16 19
-45.2281 -61.0991 10.881 9 13 16
-45.4641 -59.6582 11.2575 8 17 16
-45.5258 -58.6542 11.0988 6 15 13
-45.6616 -57.458 11.1656 7 15 12
-48.7707 -40.5943 17.02 26 29 22
-48.4092 -40.6594 15.568 24 30 27
-48.0972 -40.5978 14.2675 20 29 26
-47.8346 -40.4083 13.1174 16 25 21
-47.9893 -39.0945 13.2177 10 16 12
-48.168 -37.7104 13.3882 4 6 4
-28.6664 -178.525 -5.08698 42 37 23
-29.1614 -177.309 -3.53187 41 38 23
-29.2525 -176.627 -3.43872 42 36 22
-29.9981 -174.49 -1.22675 37 29 16
-30.0615 -173.834 -1.23851 37 26 14
-30.2321 -173.028 -0.86613 35 20 9
-30.4387 -171.595 -0.609441 97 70 65
-30.4214 -171.043 -0.915218 148 121 116
-30.3773 -170.53 -1.31703 63 34 30
-30.4668 -169.826 -1.24115 152 118 115
-30.4761 -169.234 -1.45305 159 120 117
-30.6188 -168.45 -1.18958 142 101 98
-30.8947 -167.469 -0.45324 148 107 103
-31.1168 -166.561 0.0893753 158 115 109
-31.2587 -165.766 0.344543 160 121 114
-31.3205 -165.086 0.313748 162 129 116
-31.2493 -164.602 -0.190281 153 121 106
-31.3907 -163.8 0.0597103 125 96 78
-31.3726 -163.235 -0.256923 118 91 73
-31.6464 -162.228 0.4588 112 85 68
-31.6545 -161.619 0.233356 102 77 63
-31.9012 -160.645 0.849189 68 48 37
-32.2269 -159.543 1.74151 42 29 20
-29.4488 -145.484 -15.8964 101 107 107
-29.4561 -144.864 -16.1304 78 84 84
-29.541 -144.101 -16.1013 70 76 76
-29.4446 -143.671 -16.6882 79 85 85
-29.2965 -143.338 -17.4497 72 78 78
-29.3036 -142.716 -17.6854 83 89 89
-29.3105 -142.093 -17.9218 98 103 104
-29.3174 -141.47 -18.1589 85 89 90
-29.2726 -140.944 -18.5706 91 95 96
-29.2535 -140.368 -18.8956 97 101 104
-29.1314 -139.99 -19.5674 113 117 120
-28.9321 -139.762 -20.4974 116 120 124
-28.6816 -139.636 -21.5981 103 107 110
-28.5855 -139.213 -22.1796 90 94 97
-28.4895 -138.791 -22.7604 81 85 88
-28.3935 -138.369 -23.3407 75 79 82
-28.3231 -137.898 -23.8348 61 65 68
-28.3297 -137.274 -24.0723 73 77 80
-28.3617 -136.597 -24.2253 79 80 84
-28.4192 -135.869 -24.2942 70 71 75
-28.4254 -135.241 -24.5344 66 67 71
-28.5336 -134.405 -24.4362 74 75 76
-28.5395 -133.775 -24.6785 69 71 68
-28.7749 -132.674 -24.1617 82 72 66
-29.0608 -131.463 -23.48 99 71 67
-29.4481 -130.036 -22.4664 112 76 70
-29.6056 -129.077 -22.2138 119 76 69
-29.7374 -128.168 -22.0477 127 80 70
-29.7671 -127.47 -22.2184 129 85 76
-29.8983 -126.555 -22.0564 126 88 79
-30.0292 -125.638 -21.8967 120 88 83
-30.3881 -124.232 -20.9916 109 89 89
-39.8984 -98.7856 7.96834 20 33 42
-39.8938 -98.0446 7.63942 20 33 41
-39.6372 -97.8614 6.49389 25 36 42
-39.6782 -96.2665 5.99837 7 17 19
-39.7487 -95.3541 5.91124 6 15 17
-39.6934 -94.723 5.41778 10 19 18
-39.5627 -94.2628 4.68202 5 13 11
-39.6272 -92.6002 4.2589 3 9 7
-39.6217 -91.853 3.92516 4 10 8
-39.7411 -90.8159 3.99117 1 7 5
-39.879 -88.9656 3.79707 14 20 20
-40.2224 -87.3944 4.57295 6 12 11
-41.2139 -84.2916 7.4084 4 10 8
-42.924 -77.0556 11.522 0 5 1
-42.7156 -76.7484 10.5302 0 5 1
-42.7309 -75.9044 10.2461 0 4 0
-43.0338 -73.5485 10.5338 1 7 3
-42.9988 -72.8194 10.089 2 8 4
-42.9141 -72.2114 9.48831 3 9 5
-43.2639 -69.7112 9.91377 4 10 8
-43.3517 -68.6701 9.85136 7 13 11
-43.4886 -67.503 9.94112 10 14 13
-43.6004 -66.3944 9.95129 11 12 14
-43.6872 -65.3449 9.88239 12 13 17
-43.9831 -62.9257 10.1207 10 14 17
-43.9951 -62.0556 9.81619 11 14 19
-44.4739 -59.9887 10.9563 8 14 16
-44.5098 -59.0488 10.7226 6 15 14
-44.7417 -57.6005 11.0935 8 17 16
-47.4382 -42.639 16.1832 29 32 23
-47.3966 -41.8544 15.6952 20 25 19
-47.2332 -41.3979 14.8373 21 29 25
-47.1428 -40.7454 14.202 19 28 27
-27.9775 -180.275 -4.54711 43 40 25
-28.0412 -179.638 -4.54385 48 42 28
-27.758 -179.461 -5.80998 44 37 24
-28.1682 -178.359 -4.54121 48 42 28
-28.7208 -176.496 -2.99096 41 35 21
-28.8104 -175.812 -2.89995 36 30 16
-29.5028 -173.153 -1.09455 26 18 6
-29.6446 -172.382 -0.820299 28 16 6
-29.6536 -171.795 -1.02865 46 27 20
-29.6626 -171.208 -1.23766 113 94 88
-29.7244 -170.544 -1.25587 82 58 53
-29.7598 -169.916 -1.37097 145 114 111
-29.8479 -169.21 -1.29628 153 116 113
-29.9623 -168.464 -1.12801 134 94 91
-30.2085 -167.522 -0.486406 137 96 92
-30.3752 -166.692 -0.133152 154 111 105
-30.4362 -166.015 -0.161497 157 118 109
-30.4707 -165.375 -0.285749 151 115 101
-30.4525 -164.814 -0.599818 136 103 86
-30.6184 -163.973 -0.254567 127 96 78
-30.7053 -163.25 -0.194203 108 79 61
-30.9496 -162.283 0.427931 104 77 60
-30.9834 -161.634 0.296461 103 78 64
-31.2009 -160.7 0.81901 60 40 29
-31.3131 -159.925 0.964576 44 30 21
-32.2374 -157.876 3.99876 20 13 7
-28.9183 -147.071 -14.6039 81 86 88
-28.8995 -146.5 -14.9252 107 112 114
-28.7009 -146.258 -15.8661 103 108 110
-28.5795 -145.877 -16.5401 84 89 91
-28.5095 -145.402 -17.0371 82 87 90
-28.4908 -144.832 -17.3578 79 84 87
-28.4207 -144.357 -17.8545 83 88 91
-28.4019 -143.786 -18.1757 89 94 97
-28.4342 -143.118 -18.3224 91 96 99
-28.4918 -142.4 -18.3829 82 87 90
-28.4472 -141.875 -18.7932 78 82 85
-28.377 -141.4 -19.2906 105 109 112
-28.2048 -141.121 -20.1347 115 118 122
-28.0327 -140.845 -20.9773 102 105 110
-27.8863 -140.521 -21.7318 89 92 97
-27.8417 -140 -22.1399 80 84 87
-27.7972 -139.478 -22.5481 74 78 81
-27.8034 -138.855 -22.7844 77 81 84
-27.7587 -138.333 -23.193 73 77 80
-27.7647 -137.709 -23.4304 70 74 77
-27.6946 -137.237 -23.9249 67 71 74
-27.7258 -136.56 -24.078 71 72 76
-27.7569 -135.883 -24.2322 67 68 72
-27.8131 -135.152 -24.3024 64 65 68
-27.8691 -134.42 -24.374 71 73 72
-27.8744 -133.789 -24.6163 70 72 70
-28.0563 -132.793 -24.2681 77 73 68
-28.2631 -131.74 -23.8387 92 73 67
-28.7467 -130.103 -22.4873 108 73 69
-29.0028 -128.933 -21.8986 117 77 71
-29.2081 -127.864 -21.4815 125 81 75
-29.2872 -127.057 -21.4858 127 88 81
-39.259 -99.2106 8.86307 20 30 40
-38.9141 -96.9686 6.48322 10 21 25
-39.0084 -96.0011 6.47849 10 20 22
-39.0775 -95.0876 6.39061 3 12 14
-38.8977 -94.7391 5.49155 4 13 12
-38.8801 -92.5014 4.49356 3 9 9
-39.0226 -91.4083 4.64118 2 8 8
-39.0905 -90.4851 4.54576 3 9 9
-38.9354 -90.0817 3.72913 3 9 9
-39.0029 -89.156 3.63182 11 17 17
-39.169 -87.9945 3.85127 10 16 14
-40.0507 -85.1286 6.37162 6 12 10
-42.7707 -77.0443 14.4595 0 3 0
-42.1634 -75.2613 11.186 0 4 0
-42.5103 -72.7801 11.6266 0 6 1
-42.0851 -71.3757 9.27569 3 9 5
-42.4911 -66.2296 8.88577 11 13 15
-42.6493 -64.9936 9.04713 10 13 15
-43.4376 -60.445 10.5026 8 13 16
-43.6425 -59.0647 10.8017 7 16 15
-43.9781 -56.4806 11.1621 10 19 18
-44.1574 -55.1507 11.3753 7 13 14
-46.3872 -43.0465 15.8199 23 27 21
-45.8399 -43.6381 13.7767 25 30 26
-45.9186 -42.5304 13.6625 21 27 23
-45.949 -41.552 13.3988 16 23 20
-27.3743 -180.253 -4.3906 48 45 30
-27.3841 -179.686 -4.58285 51 45 31
-27.209 -179.367 -5.45872 47 40 26
-27.8972 -176.763 -3.61082 41 34 21
-28.0118 -176.043 -3.42159 35 30 17
-28.451 -174.302 -2.27641 24 21 8
-28.5124 -173.647 -2.28724 18 14 2
-28.6 -172.954 -2.20314 23 16 4
-28.6612 -172.295 -2.21677 23 13 3
-28.8272 -171.485 -1.84804 34 25 16
-29.0454 -170.595 -1.29046 77 62 55
-29.1323 -169.892 -1.21413 128 105 100
-29.2714 -169.11 -0.948605 138 105 103
-29.3841 -168.363 -0.78066 123 86 81
-29.5228 -167.575 -0.519618 137 98 93
-29.6351 -166.823 -0.355828 144 103 96
-29.6429 -166.225 -0.573075 155 117 108
-29.7028 -165.547 -0.601811 147 113 101
-29.6583 -165.026 -1.0096 135 103 89
-29.9003 -164.067 -0.380516 124 93 78
-30.0119 -163.304 -0.225579 104 76 59
-30.1752 -162.458 0.115214 98 71 56
-30.2863 -161.689 0.2658 98 75 62
-30.4492 -160.836 0.601578 77 60 50
-30.7415 -159.777 1.40186 39 27 18
-31.1112 -158.588 2.47763 20 14 9
-28.547 -147.763 -13.0085 94 99 101
-28.095 -147.981 -14.8431 72 77 80
-27.898 -147.739 -15.7845 81 86 89
-27.8792 -147.171 -16.1035 97 102 105
-27.8096 -146.697 -16.5999 95 100 103
-27.7907 -146.128 -16.9193 85 90 93
-27.721 -145.654 -17.4155 88 93 96
-27.7021 -145.085 -17.7354 82 87 90
-27.7337 -144.419 -17.8801 84 89 92
-27.7653 -143.752 -18.0258 78 83 86
-27.7208 -143.229 -18.4351 73 78 81
-27.6762 -142.706 -18.8443 89 94 97
-27.6064 -142.231 -19.3408 108 112 115
-27.4356 -141.953 -20.1849 99 103 106
-27.2649 -141.678 -21.0274 84 87 92
-27.1196 -141.354 -21.7816 77 80 85
-27.1508 -140.685 -21.9292 77 80 85
-27.1315 -140.114 -22.2506 75 79 82
-27.1624 -139.442 -22.4 71 75 78
-27.1429 -138.869 -22.7224 78 82 85
-27.1735 -138.195 -22.8736 73 77 80
-27.1037 -137.723 -23.3684 74 78 81
-27.109 -137.098 -23.6066 70 74 77
-27.1143 -136.472 -23.8454 69 70 74
-27.2948 -135.486 -23.489 68 69 73
-27.3247 -134.805 -23.6454 66 67 68
-27.3545 -134.123 -23.803 67 69 68
-27.2592 -133.7 -24.3847 74 76 75
-27.4386 -132.702 -24.0367 73 75 74
-27.6176 -131.701 -23.6917 85 73 71
-28.0956 -130.064 -22.34 97 71 70
-28.8499 -127.188 -20.3283 119 85 79
-29.0269 -126.166 -20.0001 117 86 82
-38.5871 -98.9509 9.34776 22 35 41
-38.1573 -95.3862 6.05885 11 17 19
-37.8863 -92.9761 3.9236 4 10 8
-38.0759 -91.7696 4.23333 4 10 8
-38.1915 -90.7321 4.29928 3 9 7
-38.0131 -90.3874 3.4032 5 11 9
-38.0304 -89.5792 3.14721 10 12 10
-38.1942 -88.4192 3.36802 11 15 12
-38.7239 -86.3758 4.77785 7 12 8
-41.64 -72.8566 11.6262 0 5 0
-41.229 -72.2433 9.64298 0 6 4
-41.1933 -71.5137 9.1978 1 7 5
-41.3267 -70.3552 9.29455 3 9 7
-41.2665 -69.6845 8.77023 4 10 8
-41.3027 -68.7674 8.55444 4 10 8
-41.3146 -67.9104 8.26036 5 11 9
-41.7716 -65.0717 9.04856 7 13 11
-41.8548 -64.0196 8.97787 8 14 12
-41.9137 -63.0276 8.8289 7 13 11
-42.1886 -61.4673 9.36344 6 11 14
-42.4869 -59.8379 9.96928 12 17 20
-42.8086 -58.1388 10.6459 15 20 23
-43.0666 -55.7404 10.7758 10 15 18
-42.7402 -55.7515 9.40622 7 13 14
-45.8578 -42.9349 17.4312 18 25 18
-45.22 -43.7803 15.0848 22 28 23
-44.7259 -44.2432 13.1911 21 26 22
-44.7081 -43.4001 12.7827 15 21 17
-44.6664 -42.6221 12.2999 12 18 14
-44.9094 -41.0504 12.7003 7 12 8
-27.1988 -177.421 -3.54817 46 39 28
-27.2337 -176.812 -3.64843 39 34 22
-27.2686 -176.202 -3.74965 32 29 17
-27.815 -173.735 -2.41976 17 14 2
-27.8493 -173.116 -2.52772 16 11 0
-27.8316 -172.571 -2.82888 18 13 3
-27.8658 -171.95 -2.93849 7 5 0
-28.0815 -171.063 -2.37865 68 64 53
-28.3228 -170.134 -1.72651 56 39 32
-28.5378 -169.238 -1.17346 78 51 47
-28.649 -168.492 -1.00484 79 46 40
-28.76 -167.744 -0.838225 114 79 72
-28.9225 -166.915 -0.483701 125 86 79
-29.0072 -166.2 -0.416192 134 96 88
-28.9628 -165.679 -0.823453 130 95 85
-28.97 -165.08 -1.04182 122 89 77
-29.1059 -164.28 -0.789431 109 79 66
-29.3705 -163.279 -0.068757 102 73 61
-29.5316 -162.432 0.272089 98 71 59
-29.6411 -161.663 0.422676 80 59 47
-29.8018 -160.811 0.758505 58 44 33
-29.9365 -159.995 0.998194 43 33 23
-30.379 -158.685 2.3551 29 22 16
-27.5722 -148.948 -13.7851 79 85 86
-27.2253 -148.981 -15.2638 79 83 86
-27.0551 -148.693 -16.1156 70 74 78
-26.9607 -148.268 -16.6994 75 80 83
-26.9922 -147.608 -16.8393 97 102 105
-26.9984 -146.994 -17.0687 95 100 103
-26.9793 -146.427 -17.3871 84 89 93
-26.9351 -145.906 -17.7941 79 85 88
-26.916 -145.338 -18.1132 76 82 85
-26.8968 -144.77 -18.4327 84 89 92
-26.8524 -144.249 -18.8402 94 100 102
-26.7079 -143.921 -19.5977 105 111 114
-26.7137 -143.304 -19.83 101 106 109
-26.6693 -142.783 -20.2374 80 84 87
-26.5999 -142.311 -20.7318 77 81 84
-26.5056 -141.889 -21.3127 74 77 82
-26.4612 -141.368 -21.7198 71 74 79
-26.5414 -140.6 -21.6944 69 73 77
-26.5716 -139.928 -21.8433 70 74 78
-26.6265 -139.206 -21.9072 66 70 74
-26.6315 -138.582 -22.1445 72 76 79
-26.6861 -137.856 -22.2108 71 75 78
-26.6163 -137.382 -22.7068 74 78 81
-26.5962 -136.807 -23.0315 72 76 79
-26.5512 -136.282 -23.442 70 72 76
-26.7044 -135.346 -23.1712 67 69 72
-26.7582 -134.613 -23.2431 64 66 67
-26.7623 -133.982 -23.4861 68 71 71
-26.7169 -133.454 -23.8991 77 80 79
-26.7703 -132.717 -23.9742 73 76 75
-26.9469 -131.715 -23.6289 81 73 73
-27.3452 -130.237 -22.5293 87 72 72
-28.3613 -126.778 -19.5936 103 86 83
-28.6343 -125.541 -18.9319 130 117 112
-37.7963 -99.7088 9.75114 33 44 50
-37.8635 -98.8015 9.66837 29 40 46
-37.3302 -94.7144 5.7201 9 15 15
-37.2019 -94.2537 4.98385 10 16 15
-37.1565 -92.0732 3.90552 5 11 9
-37.1249 -91.3834 3.49146 4 10 8
-37.1175 -90.6352 3.15704 7 13 11
-37.2067 -89.6532 3.14124 8 12 11
-37.4889 -88.2013 3.76071 6 11 7
-37.6739 -86.9779 4.0575 4 9 5
-38.0274 -85.3383 4.90623 19 25 20
-40.6977 -71.4694 10.7321 0 4 0
-40.5896 -70.9198 10.0517 0 5 1
-40.649 -69.9427 9.91449 2 8 4
-40.5408 -69.3933 9.23431 3 9 5
-40.5042 -68.66 8.78627 4 10 6
-40.4675 -67.9262 8.3379 2 8 4
-40.952 -64.1603 8.90305 8 14 10
-41.176 -62.7299 9.28875 6 12 8
-41.2807 -61.6089 9.28967 6 12 10
-41.5276 -60.1062 9.74419 11 17 17
-41.5366 -59.2312 9.43619 15 21 21
-41.735 -57.8467 9.73243 10 16 16
-41.7198 -57.0313 9.34563 9 15 15
-41.5388 -56.6628 8.43096 7 13 13
-41.5234 -55.8472 8.04404 6 12 8
-41.8387 -54.1292 8.70629 0 4 0
-44.0714 -46.2648 15.0911 21 27 24
-44.4305 -44.3818 15.8751 32 38 35
-44.1529 -44.253 14.6464 19 24 20
-43.7814 -44.3899 13.1242 13 18 14
-43.8571 -43.2845 13.0121 9 15 11
-43.6976 -42.8355 12.1599 7 13 9
-43.8903 -41.3967 12.4137 5 10 6
-26.2094 -180.705 -3.68939 57 55 40
-26.6141 -177.362 -3.29422 39 35 24
-26.6998 -176.681 -3.20045 30 26 15
-26.6564 -176.179 -3.59311 29 25 14
-26.8193 -175.384 -3.21141 26 22 11
-26.8274 -174.807 -3.41211 22 19 7
-26.9642 -174.044 -3.13115 17 17 1
-26.8949 -173.576 -3.62288 15 14 1
-26.9286 -172.958 -3.72975 16 14 1
-27.0393 -172.227 -3.5497 4 5 0
-27.3037 -171.266 -2.79682 55 54 42
-27.6447 -170.186 -1.76101 30 18 10
-27.8571 -169.291 -1.20752 42 22 15
-27.9411 -168.583 -1.13387 46 18 11
-28.0505 -167.835 -0.966749 49 16 9
-28.1853 -167.046 -0.706648 60 25 19
-28.2943 -166.292 -0.543688 83 44 39
-28.3265 -165.654 -0.666664 107 69 60
-28.3331 -165.054 -0.885132 115 81 71
-28.5182 -164.176 -0.444082 104 71 62
-28.601 -163.453 -0.382628 97 68 58
-28.7347 -162.648 -0.134887 79 51 40
-28.8172 -161.92 -0.0771246 65 42 32
-29.0012 -161.028 0.353566 45 29 19
-29.185 -160.132 0.781247 39 25 16
-29.47 -159.069 1.57921 32 22 13
-30.3382 -157.052 4.51543 28 19 16
-27.0983 -149.825 -12.5466 105 109 112
-26.6792 -149.99 -14.2986 104 108 111
-26.3854 -149.93 -15.599 78 82 85
-26.2916 -149.504 -16.1827 90 91 98
-26.2227 -149.033 -16.6768 73 73 81
-26.1787 -148.515 -17.0818 86 89 96
-26.1597 -147.951 -17.3981 98 101 108
-26.1654 -147.338 -17.6263 86 90 94
-26.2456 -146.583 -17.5902 80 85 89
-26.2263 -146.016 -17.9085 84 92 94
-26.1821 -145.496 -18.3152 102 110 112
-26.0882 -145.072 -18.8977 107 115 117
-25.9944 -144.648 -19.4796 87 95 97
-25.9007 -144.226 -20.0609 73 81 83
-25.906 -143.61 -20.2922 72 77 80
-25.9359 -142.944 -20.437 72 76 79
-25.8668 -142.472 -20.9309 69 73 76
-25.8224 -141.952 -21.3378 64 68 71
-25.8274 -141.333 -21.5712 66 70 73
-25.9802 -140.415 -21.2863 67 71 74
-25.9848 -139.793 -21.5223 63 66 71
-26.0139 -139.12 -21.6727 62 65 70
-25.9937 -138.546 -21.9963 64 67 72
-26.0718 -137.769 -21.9769 63 67 70
-25.9777 -137.345 -22.5589 64 68 71
-26.0063 -136.668 -22.7128 62 66 69
-25.9122 -136.245 -23.2945 66 70 73
-26.1367 -135.155 -22.7681 64 68 69
-26.1894 -134.421 -22.8406 59 63 64
-26.2663 -133.633 -22.8296 65 69 70
-26.2207 -133.104 -23.2438 73 77 76
-26.224 -132.47 -23.489 69 70 67
-26.3737 -131.52 -23.2288 76 73 72
-26.645 -130.304 -22.5503 78 71 69
-36.9094 -100.685 9.82369 39 48 55
-36.8304 -100.11 9.24874 38 47 54
-36.8238 -99.37 8.92065 32 41 48
-36.4617 -94.9005 5.55085 11 17 17
-36.3342 -94.4404 4.81499 13 18 19
-36.4072 -89.6689 3.21508 11 17 15
-36.6378 -88.3339 3.67549 3 9 7
-36.8441 -87.0523 4.05235 1 7 5
-36.9783 -85.9425 4.18745 1 5 3
-40.7111 -74.2655 15.6159 143 150 144
-40.1248 -71.6121 12.037 0 5 3
-39.946 -71.2424 11.1212 0 5 3
-39.7674 -70.8748 10.207 0 5 1
-39.7544 -70.0811 9.83714 2 8 4
-39.7413 -69.2864 9.4666 3 9 5
-40.4763 -60.6268 9.21489 7 13 13
-40.555 -59.5636 9.13578 12 18 18
-40.7037 -58.3072 9.28173 11 17 17
-41.0843 -53.8229 9.16058 4 10 8
-41.5579 -51.6448 10.3409 8 14 12
-42.287 -48.7439 12.3351 14 20 18
-42.7818 -46.4789 13.5728 20 26 24
-42.9496 -45.1171 13.7617 13 18 16
-42.8145 -44.602 12.9831 11 15 14
-42.8422 -43.6286 12.7236 4 10 7
-43.4108 -39.3057 13.4809 1 2 0
-26.005 -179.02 -2.45043 45 41 29
-26.0896 -178.342 -2.35343 41 37 25
-25.7392 -178.269 -3.91523 34 32 20
-25.9005 -177.483 -3.52673 36 34 22
-25.8317 -177.019 -4.01521 28 26 14
-25.7885 -176.519 -4.40636 25 23 11
-26.1355 -174.894 -3.5455 26 24 12
-26.1431 -174.317 -3.74645 16 16 0
-26.1506 -173.738 -3.94806 12 13 0
-26.2344 -173.047 -3.86185 12 13 0
-26.496 -172.09 -3.10534 8 10 0
-26.5286 -171.469 -3.21524 56 55 43
-26.7388 -170.58 -2.65651 26 16 6
-26.9993 -169.61 -1.9101 24 6 0
-27.1835 -168.751 -1.45366 38 10 3
-27.342 -167.927 -1.09537 75 41 32
-27.3484 -167.332 -1.30975 80 42 35
-27.4306 -166.619 -1.2403 90 49 45
-27.4369 -166.022 -1.45653 110 71 64
-27.6199 -165.148 -1.0119 112 75 67
-27.7521 -164.349 -0.758959 105 71 62
-27.9346 -163.467 -0.320005 92 61 52
-27.9907 -162.782 -0.354098 64 35 27
-28.0719 -162.056 -0.295698 59 35 25
-28.1529 -161.326 -0.238983 43 23 13
-28.2841 -160.514 0.0030717 37 18 8
-29.0479 -158.056 2.34377 38 23 17
-26.3801 -150.545 -12.4343 115 119 122
-25.8658 -150.889 -14.5473 109 113 116
-25.5994 -150.784 -15.7587 116 120 123
-25.4074 -150.543 -16.699 77 81 84
-25.4377 -149.889 -16.8346 79 80 87
-25.4432 -149.28 -17.0603 70 70 80
-25.3993 -148.763 -17.4644 93 96 104
-25.3554 -148.247 -17.8686 93 96 103
-25.3607 -147.635 -18.0957 97 100 107
-25.4397 -146.882 -18.0585 110 115 121
-25.4447 -146.268 -18.2876 107 112 116
-25.376 -145.797 -18.7816 86 91 95
-25.3319 -145.278 -19.1874 74 79 83
-25.2632 -144.807 -19.6809 73 78 82
-25.219 -144.289 -20.0867 73 78 82
-25.2238 -143.672 -20.3178 71 76 80
-25.2529 -143.007 -20.4623 70 74 77
-25.2085 -142.487 -20.8691 67 71 74
-25.2374 -141.819 -21.0153 67 71 74
-25.2661 -141.15 -21.1625 67 71 74
-25.3679 -140.33 -21.0512 69 73 76
-25.3963 -139.658 -21.2011 69 72 77
-25.3758 -139.084 -21.5244 65 68 73
-25.3553 -138.51 -21.8481 61 64 69
-25.4077 -137.783 -21.9146 60 64 67
-25.4356 -137.106 -22.0682 59 63 66
-25.4633 -136.427 -22.2228 60 64 67
-25.4666 -135.799 -22.4639 63 67 70
-25.5911 -134.912 -22.2796 62 66 67
-25.691 -134.074 -22.1827 58 62 63
-25.718 -133.388 -22.3426 60 64 65
-25.6965 -132.806 -22.6729 63 67 66
-25.6991 -132.17 -22.9191 69 71 69
-25.774 -131.377 -22.9128 65 65 63
-26.0659 -130.107 -22.1503 66 64 61
-26.6949 -128.092 -20.2158 154 153 151
-35.3405 -96.451 4.81845 10 14 17
-35.5232 -95.2566 5.13831 10 14 17
-35.3966 -94.7978 4.40334 11 16 18
-35.4125 -93.9974 4.15362 9 15 15
-35.2384 -93.6544 3.25849 9 15 15
-35.4438 -92.3927 3.65108 10 16 16
-35.3881 -91.7616 3.15762 9 15 15
-35.427 -90.8986 2.98432 6 12 12
-35.5751 -88.9921 2.87277 18 24 24
-39.4633 -71.1439 12.7393 0 5 5
-39.356 -70.5901 12.0556 0 3 3
-39.272 -69.9763 11.4503 0 4 2
-39.0574 -68.8726 10.0859 1 7 3
-39.1135 -67.8907 9.94513 1 7 3
-39.146 -66.9686 9.72567 1 7 3
-39.638 -60.5795 9.36953 4 10 10
-39.5296 -60.0225 8.68341 6 12 12
-39.676 -58.7676 8.8307 9 15 15
-39.7063 -57.8276 8.59733 10 16 16
-39.7595 -56.822 8.43802 8 14 13
-39.8355 -55.75 8.35226 5 11 9
-40.1191 -54.096 8.93983 7 13 11
-40.3328 -52.6295 9.29782 11 17 15
-40.8226 -50.3801 10.5482 14 20 18
-41.4035 -47.8603 12.0888 11 17 15
-41.8222 -45.7854 13.0995 13 17 16
-25.6012 -180.396 -0.824068 50 44 30
-24.9711 -179.03 -4.14978 45 39 27
-25.4342 -177.819 -2.58852 30 28 16
-25.4414 -177.246 -2.78599 30 28 16
-25.3222 -176.852 -3.46997 25 23 11
-25.1779 -176.496 -4.24996 23 21 9
-25.488 -175.484 -3.28541 28 26 14
-25.4699 -174.945 -3.58231 22 21 8
-25.5525 -174.256 -3.49348 12 14 0
-25.2573 -174.123 -4.85152 11 13 0
-25.4658 -173.247 -4.28259 12 14 0
-26.0008 -171.879 -2.46873 5 12 0
-26.1079 -171.142 -2.29198 58 60 47
-26.1897 -170.442 -2.21289 25 13 4
-26.4218 -169.51 -1.56234 47 24 17
-26.5533 -168.727 -1.29686 116 84 77
-26.6846 -167.941 -1.03371 154 116 109
-26.7156 -167.307 -1.15299 154 113 107
-26.7964 -166.594 -1.08356 157 113 107
-26.8021 -165.997 -1.29989 155 112 108
-26.9577 -165.162 -0.949718 152 113 108
-27.113 -164.324 -0.602214 139 102 96
-27.2681 -163.482 -0.257382 135 101 94
-27.2483 -162.917 -0.573461 88 56 47
-27.3033 -162.231 -0.608294 75 47 36
-27.3333 -161.584 -0.738184 57 33 21
-27.6119 -160.528 0.0662812 44 22 9
-27.8901 -159.467 0.866411 47 25 13
-28.0933 -158.523 1.38258 58 37 29
-28.3209 -157.534 1.98845 51 32 25
-26.419 -150.479 -9.2991 99 104 107
-25.8353 -150.946 -11.6931 136 139 144
-25.3013 -151.331 -13.9001 122 125 130
-24.9148 -151.451 -15.5621 118 121 126
-24.6999 -151.256 -16.5926 124 127 132
-24.6562 -150.742 -16.9951 67 70 75
-24.7101 -150.042 -17.0407 75 76 84
-24.8127 -149.248 -16.9096 93 93 103
-24.6956 -148.871 -17.5806 104 107 116
-24.6274 -148.402 -18.0732 104 107 116
-24.6322 -147.791 -18.2998 104 107 114
-24.7342 -146.991 -18.1735 88 93 99
-24.7144 -146.425 -18.4905 79 84 88
-24.6703 -145.907 -18.8959 75 80 84
-24.6261 -145.388 -19.3014 76 81 85
-24.582 -144.87 -19.7069 74 79 83
-24.6105 -144.206 -19.8498 70 75 79
-24.5904 -143.638 -20.1686 69 74 78
-24.5945 -143.021 -20.4005 70 74 77
-24.5501 -142.501 -20.8073 68 72 75
-24.6264 -141.735 -20.7796 70 74 77
-24.6543 -141.065 -20.9271 61 65 68
-24.8027 -140.146 -20.6428 62 66 69
-24.7579 -139.622 -21.0525 66 69 74
-24.7853 -138.948 -21.2035 69 73 76
-24.7644 -138.373 -21.5277 65 69 72
-24.8397 -137.596 -21.5087 67 71 74
-24.8666 -136.917 -21.6629 62 66 67
-24.9175 -136.187 -21.7326 61 65 66
-24.9202 -135.557 -21.9744 63 67 70
-25.0666 -134.618 -21.7056 62 66 67
-25.1647 -133.779 -21.6096 60 64 65
-25.2387 -132.988 -21.6006 59 63 64
-25.1689 -132.508 -22.1017 59 63 62
-25.2187 -131.767 -22.1797 71 70 70
-25.2443 -131.076 -22.3435 65 63 64
-25.6516 -129.542 -21.1604 67 67 65
-31.314 -113.533 -2.57945 119 133 135
-32.0228 -111.217 -0.37808 104 117 123
-33.1758 -107.14 3.08049 115 125 130
-32.6909 -106.797 0.805836 102 105 110
-32.2305 -106.412 -1.37609 100 103 108
-32.8157 -104.313 0.368197 101 104 109
-33.0929 -102.925 1.03863 91 95 99
-34.0314 -95.4412 2.20868 6 12 13
-34.0702 -94.5875 2.04272 11 17 18
-34.2025 -93.5018 2.197 11 17 18
-34.1706 -92.817 1.78692 13 18 20
-33.9748 -92.5375 0.815983 36 41 43
-33.709 -92.4351 -0.392691 34 42 43
-38.482 -70.667 12.0558 0 4 7
-38.5602 -69.6266 11.9947 0 4 4
-38.3378 -69.3788 10.9232 0 5 5
-38.2541 -68.7657 10.3185 0 5 3
-38.4174 -65.8124 9.89052 1 8 1
-38.6544 -61.782 9.3728 5 11 7
-38.7073 -60.7845 9.22 6 12 10
-38.8057 -59.6583 9.21734 4 10 8
-38.9267 -58.4657 9.28808 5 11 9
-38.9101 -57.652 8.90281 9 15 13
-38.9161 -56.7736 8.59229 5 11 9
-38.8992 -55.9581 8.20556 8 14 10
-39.2472 -54.1117 9.01914 8 14 10
-39.3209 -53.0327 8.92803 8 14 10
-39.7815 -50.8494 10.1053 17 23 19
-40.2868 -48.5263 11.424 8 14 10
-25.0396 -180.305 -0.469737 54 51 36
-24.9708 -179.838 -0.960347 45 41 29
-23.7476 -180.983 -5.95983 57 52 40
-24.3139 -179.078 -4.18854 43 38 28
-24.5964 -178.117 -3.30931 33 31 19
-24.6032 -177.546 -3.50537 26 24 12
-24.4599 -177.19 -4.28528 22 20 8
-24.5417 -176.509 -4.19054 22 20 8
-24.6484 -175.79 -4.00057 28 26 14
-24.8796 -174.885 -3.32905 20 19 7
-24.6866 -174.602 -4.30233 11 13 0
-24.6683 -174.063 -4.599 12 13 0
-24.8242 -173.261 -4.22254 13 14 0
-25.4029 -171.817 -2.216 3 9 0
-25.4586 -171.156 -2.23115 57 54 43
-25.5141 -170.494 -2.24764 30 7 3
-25.6937 -169.638 -1.78772 78 41 38
-25.8234 -168.856 -1.52155 138 95 90
-25.9281 -168.109 -1.35292 163 117 112
-26.0326 -167.36 -1.18629 184 137 133
-26.1864 -166.53 -0.831891 166 118 114
-26.2162 -165.894 -0.95376 152 107 104
-26.3696 -165.058 -0.603865 154 109 106
-26.4239 -164.378 -0.634201 147 106 100
-26.6508 -163.416 -0.00631081 143 105 98
-26.5815 -162.932 -0.5108 118 84 75
-26.6846 -162.165 -0.357729 109 77 68
-26.6152 -161.68 -0.862775 86 60 47
-26.792 -160.788 -0.431891 84 58 45
-26.9684 -159.891 -0.00401949 99 72 59
-27.1936 -158.909 0.607303 102 75 64
-27.4185 -157.922 1.21495 94 67 57
-27.6675 -156.888 1.91181 119 98 88
-25.7216 -151.156 -9.09471 95 100 103
-25.2646 -151.394 -11.0411 136 141 144
-24.7598 -151.729 -13.1621 133 136 143
-24.3526 -151.891 -14.9172 126 129 136
-24.091 -151.785 -16.1288 117 120 127
-23.9506 -151.454 -16.8896 118 121 128
-23.9311 -150.894 -17.202 99 102 109
-23.9599 -150.241 -17.3362 101 102 111
-24.0126 -149.541 -17.3825 105 105 115
-23.9447 -149.072 -17.8747 92 95 103
-23.925 -148.51 -18.1891 86 89 96
-23.9292 -147.9 -18.4154 85 88 95
-23.9575 -147.241 -18.5539 78 83 89
-23.9855 -146.582 -18.6935 76 81 85
-23.9895 -145.969 -18.9223 74 79 83
-24.0173 -145.307 -19.0638 75 80 84
-24.0211 -144.691 -19.2942 72 77 81
-24.0247 -144.075 -19.5253 70 75 79
-23.9804 -143.555 -19.9319 66 70 74
-23.9599 -142.986 -20.2514 69 73 76
-23.9394 -142.417 -20.5713 71 75 78
-24.0382 -141.601 -20.4569 68 72 75
-24.1368 -140.783 -20.3445 64 68 71
-24.2352 -139.961 -20.2342 63 67 70
-24.1903 -139.437 -20.6446 64 68 71
-24.2406 -138.712 -20.71 67 71 74
-24.2194 -138.136 -21.035 65 69 72
-24.3169 -137.307 -20.9308 64 68 69
-24.343 -136.627 -21.0859 64 68 69
-24.4401 -135.794 -20.9853 65 69 70
-24.4421 -135.162 -21.2284 64 68 71
-24.5387 -134.324 -21.1313 62 66 67
-24.5878 -133.587 -21.2063 59 63 64
-24.684 -132.744 -21.1129 62 66 67
-24.6853 -132.106 -21.3607 59 63 62
-24.7102 -131.416 -21.5245 53 53 53
-24.6876 -130.829 -21.8583 63 62 62
-25.1605 -129.136 -20.4228 64 63 64
-29.9871 -116.276 -4.01444 54 55 55
-30.1716 -115.156 -3.6359 46 55 55
-30.2147 -114.354 -3.76134 41 51 53
-30.2811 -113.496 -3.80491 55 63 69
-30.2769 -112.799 -4.0995 78 84 90
-30.3194 -111.992 -4.22893 88 95 99
-30.432 -111.019 -4.11145 91 95 98
-30.3102 -110.592 -4.82236 87 90 93
-30.2118 -110.11 -5.44987 87 90 93
-30.1602 -109.519 -5.91223 87 90 93
-30.2954 -108.484 -5.71784 86 89 91
-30.7803 -106.612 -4.29717 83 85 88
-31.2176 -104.841 -3.04775 84 86 89
-31.1881 -104.183 -3.43736 75 77 81
-31.112 -103.636 -3.99021 59 63 66
-31.2684 -102.525 -3.73011 64 68 71
-31.6104 -100.957 -2.82427 69 73 76
-31.9053 -99.4952 -2.086 75 79 82
-32.0835 -98.3125 -1.7566 76 81 84
-32.4849 -95.8191 -0.947043 31 36 38
-32.4534 -95.1428 -1.35045 18 23 26
-32.3062 -94.7558 -2.1547 37 42 44
-32.1129 -94.4869 -3.1175 22 31 32
-32.1968 -93.5198 -3.12118 19 28 29
-32.2804 -92.5501 -3.12688 19 27 28
-32.3868 -91.519 -3.05518 17 25 25
-32.4008 -90.721 -3.30289 14 20 20
-32.4145 -89.9216 -3.55161 34 40 38
-37.8143 -70.1972 12.7573 0 7 10
-37.9594 -68.9721 12.9282 0 5 8
-37.8071 -68.5384 12.0875 0 6 8
-37.6549 -68.1065 11.2481 0 3 2
-37.594 -67.4298 10.719 0 5 2
-37.6156 -64.8396 9.82277 1 7 3
-37.3952 -64.5982 8.75614 2 8 4
-37.6065 -63.1691 9.14385 4 10 6
-37.9425 -59.6741 9.29606 3 9 5
-38.0161 -58.6084 9.21546 4 10 6
-37.9591 -57.0451 8.36954 5 11 7
-37.9868 -56.102 8.13399 9 15 11
-38.1722 -54.7067 8.42272 11 17 13
-38.4247 -53.1129 8.93255 14 20 16
-38.9467 -50.7355 10.3347 54 60 56
-23.6324 -179.162 -4.32507 45 41 32
-23.8187 -177.775 -4.03037 24 24 12
-23.8993 -177.095 -3.93434 19 19 7
-24.0044 -176.378 -3.74288 18 18 6
-24.06 -175.731 -3.74718 21 21 9
-24.0414 -175.192 -4.04299 15 16 3
-24.0721 -174.579 -4.14599 12 12 0
-24.2014 -173.816 -3.86439 12 13 0
-24.3305 -173.051 -3.58509 12 14 0
-24.5085 -172.207 -3.11598 16 14 1
-24.7354 -171.284 -2.45804 62 38 34
-24.9129 -170.432 -1.99522 183 138 139
-25.09 -169.576 -1.53538 99 50 51
-25.2177 -168.793 -1.26934 143 91 89
-25.2962 -168.085 -1.19612 146 94 90
-25.4726 -167.219 -0.744255 112 62 58
-25.5752 -166.467 -0.58012 105 56 52
-25.7021 -165.672 -0.323243 171 122 119
-25.7554 -164.993 -0.352444 163 115 111
-25.8574 -164.233 -0.194163 138 93 88
-26.0081 -163.391 0.150609 139 98 90
-25.9877 -162.826 -0.165887 141 103 94
-26.0161 -162.18 -0.294905 140 105 94
-25.9469 -161.694 -0.799963 138 106 95
-26.0239 -160.965 -0.743193 151 117 105
-26.2223 -160.029 -0.220997 152 118 106
-26.4203 -159.088 0.297853 159 125 114
-26.5694 -158.226 0.627171 163 129 118
-26.8425 -156.533 1.18498 155 127 118
-27.3543 -155.031 2.89533 150 126 120
-26.4617 -150.412 -2.9759 83 87 90
-25.8153 -150.983 -5.666 89 93 96
-25.2657 -151.386 -7.98544 101 105 108
-24.573 -152.066 -10.8406 126 130 133
-24.1689 -152.218 -12.6036 138 141 145
-23.7893 -152.331 -14.2715 131 134 141
-23.6018 -152.087 -15.2153 124 127 134
-23.4145 -151.845 -16.1572 118 121 128
-23.323 -151.422 -16.7387 112 115 122
-23.3032 -150.862 -17.0512 87 90 97
-23.3072 -150.256 -17.2748 97 98 106
-23.3112 -149.648 -17.4992 93 93 101
-23.315 -149.04 -17.7243 85 88 95
-23.3188 -148.43 -17.9501 83 86 92
-23.3701 -147.725 -17.9994 84 88 93
-23.3498 -147.161 -18.3154 81 86 90
-23.3533 -146.549 -18.5436 76 79 86
-23.3329 -145.983 -18.8606 75 78 85
-23.3836 -145.273 -18.9141 75 78 85
-23.3631 -144.706 -19.2324 77 80 87
-23.3898 -144.041 -19.3758 71 74 81
-23.3218 -143.569 -19.8701 66 69 75
-23.3483 -142.903 -20.015 66 70 73
-23.3984 -142.186 -20.0738 66 70 73
-23.4955 -141.369 -19.9601 65 69 72
-23.5924 -140.55 -19.8484 70 74 77
-23.6654 -139.777 -19.8255 66 70 73
-23.5969 -139.301 -20.323 63 67 70
-23.6696 -138.526 -20.3024 64 68 71
-23.695 -137.848 -20.4559 64 68 70
-23.8614 -136.867 -20.0946 66 70 71
-23.7925 -136.388 -20.5944 65 69 70
-23.8644 -135.604 -20.5801 61 65 66
-23.7953 -135.125 -21.0803 58 62 65
-23.9138 -134.236 -20.8978 60 64 65
-23.8915 -133.652 -21.2285 61 65 66
-24.0562 -132.654 -20.88 58 62 63
-24.057 -132.017 -21.128 55 59 58
-24.1978 -131.064 -20.869 56 56 56
-24.1982 -130.423 -21.1194 60 60 60
-24.6883 -128.676 -19.6005 60 62 61
-29.1276 -115.867 -4.65387 72 73 75
-29.1931 -115.014 -4.69361 54 55 58
-29.1422 -114.428 -5.15154 57 58 62
-29.0358 -112.562 -6.36004 68 68 69
-29.0389 -109.718 -7.45503 77 77 77
-29.195 -108.629 -7.17755 86 86 88
-29.5121 -107.146 -6.33058 83 84 88
-29.5982 -106.216 -6.30523 76 77 81
-29.6841 -105.283 -6.28192 73 74 78
-29.7697 -104.348 -6.26066 65 66 68
-29.9928 -103.07 -5.75469 45 46 48
-30.1466 -101.957 -5.49564 57 60 61
-30.2311 -101.012 -5.48199 72 76 76
-30.4758 -99.663 -4.90603 70 74 74
-30.8115 -98.0784 -4.01262 65 71 69
-31.0779 -96.6596 -3.36578 53 59 58
-30.9323 -96.2782 -4.16582 44 50 48
-30.8291 -93.534 -5.68437 8 14 12
-30.8656 -92.6842 -5.84706 14 20 18
-30.5517 -91.9901 -7.51869 14 20 18
-31.418 -88.1897 -5.09628 13 19 21
-36.7339 -68.3066 11.0939 0 5 6
-36.8533 -67.1378 11.1836 0 4 5
-36.9048 -66.1509 11.0393 0 5 3
-36.7986 -65.5961 10.3546 0 4 2
-36.7599 -64.8554 9.90103 0 4 2
-36.5413 -64.6139 8.83419 0 6 2
-37.0741 -60.5637 9.68165 1 10 7
-37.1423 -56.0535 8.28817 5 11 7
-37.6179 -52.9347 9.23681 23 29 25
-38.0216 -50.8808 10.2652 66 72 68
-23.1913 -179.46 -3.29043 52 46 35
-23.0991 -179.034 -3.87522 43 39 28
-23.007 -178.608 -4.45932 29 29 17
-23.0375 -178.003 -4.55567 23 23 11
-23.2391 -177.145 -3.97224 20 20 8
-23.3427 -176.427 -3.78044 19 19 7
-23.2262 -176.036 -4.46289 15 15 3
-23.2807 -175.389 -4.46706 13 13 1
-23.3595 -174.703 -4.37596 13 13 1
-23.8038 -173.458 -2.84014 14 14 2
-23.7847 -172.915 -3.13986 14 11 2
-23.8436 -171.675 -3.35658 32 3 3
-24.1403 -170.635 -2.41304 208 155 160
-24.3394 -169.743 -1.85653 141 80 87
-24.5139 -168.884 -1.39877 90 30 34
-24.6153 -168.138 -1.2298 96 43 43
-24.765 -167.311 -0.872631 79 24 25
-24.7449 -166.754 -1.18268 145 91 92
-24.8701 -165.961 -0.924451 194 143 140
-25.0433 -165.087 -0.479349 183 135 131
-25.2162 -164.208 -0.0372472 129 84 79
-25.3164 -163.445 0.119025 128 87 78
-25.2958 -162.881 -0.197265 139 99 88
-25.3475 -162.194 -0.232084 160 122 107
-25.3268 -161.628 -0.549596 158 122 106
-25.3542 -160.98 -0.680246 167 131 117
-25.4777 -160.166 -0.438131 166 130 116
-25.601 -159.35 -0.19837 164 131 116
-25.7 -158.572 -0.0540817 163 130 115
-25.7028 -157.958 -0.283629 163 125 115
-25.7775 -157.217 -0.235521 160 127 117
-26.0197 -156.18 0.459236 156 126 116
-26.3334 -155.012 1.42734 149 121 117
-26.7422 -153.667 2.75959 141 121 119
-26.7949 -151.694 2.22043 92 93 97
-26.5101 -151.583 0.878218 93 98 100
-26.1065 -151.692 -0.918045 103 108 109
-25.6796 -151.852 -2.80069 98 102 106
-25.4675 -151.623 -3.85791 89 93 96
